-1464.000000 -534.000000 -232.000000
-1465.164182 -532.765261 -230.941652
-1466.328365 -531.530522 -229.883305
-1467.492547 -530.295784 -228.824957
-1468.656729 -529.061045 -227.766610
-1469.820912 -527.826306 -226.708262
-1470.985094 -526.591567 -225.649915
-1472.149276 -525.356828 -224.591567
-1473.313459 -524.122089 -223.533219
-1474.477641 -522.887351 -222.474872
-1475.641823 -521.652612 -221.416524
-1476.806006 -520.417873 -220.358177
-1477.970188 -519.183134 -219.299829
-1479.134370 -517.948395 -218.241482
-1480.298552 -516.713656 -217.183134
-1481.462735 -515.478918 -216.124787
-1482.626917 -514.244179 -215.066439
-1483.791099 -513.009440 -214.008091
-1484.955282 -511.774701 -212.949744
-1486.119464 -510.539962 -211.891396
-1487.283646 -509.305224 -210.833049
-1488.447829 -508.070485 -209.774701
-1489.612011 -506.835746 -208.716354
-1490.776193 -505.601007 -207.658006
-1491.940376 -504.366268 -206.599658
-1493.104558 -503.131529 -205.541311
-1494.268740 -501.896791 -204.482963
-1495.432923 -500.662052 -203.424616
-1496.597105 -499.427313 -202.366268
-1497.761287 -498.192574 -201.307921
-1498.925470 -496.957835 -200.249573
-1500.089652 -495.723096 -199.191226
-1501.253834 -494.488358 -198.132878
-1502.418017 -493.253619 -197.074530
-1503.582199 -492.018880 -196.016183
-1504.746381 -490.784141 -194.957835
-1505.910564 -489.549402 -193.899488
-1507.074746 -488.314664 -192.841140
-1508.238928 -487.079925 -191.782793
-1509.403110 -485.845186 -190.724445
-1510.567293 -484.610447 -189.666097
-1511.731475 -483.375708 -188.607750
-1512.895657 -482.140969 -187.549402
-1514.059840 -480.906231 -186.491055
-1515.224022 -479.671492 -185.432707
-1516.388204 -478.436753 -184.374360
-1517.552387 -477.202014 -183.316012
-1518.716569 -475.967275 -182.257665
-1519.880751 -474.732536 -181.199317
-1521.044934 -473.497798 -180.140969
-1522.209116 -472.263059 -179.082622
-1523.373298 -471.028320 -178.024274
-1524.537481 -469.793581 -176.965927
-1525.701663 -468.558842 -175.907579
-1526.865845 -467.324104 -174.849232
-1528.030028 -466.089365 -173.790884
-1530.000000 -464.000000 -172.000000
-1531.701596 -464.000000 -170.949014
-1533.403192 -464.000000 -169.898028
-1535.104788 -464.000000 -168.847043
-1536.806384 -464.000000 -167.796057
-1538.507980 -464.000000 -166.745071
-1540.209576 -464.000000 -165.694085
-1541.911172 -464.000000 -164.643100
-1543.612768 -464.000000 -163.592114
-1545.314364 -464.000000 -162.541128
-1547.015960 -464.000000 -161.490142
-1548.717556 -464.000000 -160.439157
-1550.419152 -464.000000 -159.388171
-1552.120748 -464.000000 -158.337185
-1553.822344 -464.000000 -157.286199
-1555.523940 -464.000000 -156.235214
-1557.225536 -464.000000 -155.184228
-1558.927132 -464.000000 -154.133242
-1560.628728 -464.000000 -153.082256
-1562.330324 -464.000000 -152.031271
-1564.031920 -464.000000 -150.980285
-1565.733516 -464.000000 -149.929299
-1567.435112 -464.000000 -148.878313
-1569.136708 -464.000000 -147.827327
-1570.838304 -464.000000 -146.776342
-1572.539900 -464.000000 -145.725356
-1574.241496 -464.000000 -144.674370
-1575.943092 -464.000000 -143.623384
-1577.644688 -464.000000 -142.572399
-1579.346284 -464.000000 -141.521413
-1581.047880 -464.000000 -140.470427
-1582.749476 -464.000000 -139.419441
-1584.451072 -464.000000 -138.368456
-1586.152668 -464.000000 -137.317470
-1587.854264 -464.000000 -136.266484
-1589.555860 -464.000000 -135.215498
-1591.257456 -464.000000 -134.164513
-1592.959052 -464.000000 -133.113527
-1594.660648 -464.000000 -132.062541
-1596.362244 -464.000000 -131.011555
-1598.063840 -464.000000 -129.960570
-1599.765436 -464.000000 -128.909584
-1601.467032 -464.000000 -127.858598
-1603.168628 -464.000000 -126.807612
-1604.870224 -464.000000 -125.756626
-1606.571820 -464.000000 -124.705641
-1608.273416 -464.000000 -123.654655
-1609.975012 -464.000000 -122.603669
-1611.676608 -464.000000 -121.552683
-1613.378204 -464.000000 -120.501698
-1615.079800 -464.000000 -119.450712
-1616.781396 -464.000000 -118.399726
-1618.482992 -464.000000 -117.348740
-1620.184588 -464.000000 -116.297755
-1621.886184 -464.000000 -115.246769
-1623.587780 -464.000000 -114.195783
-1625.289376 -464.000000 -113.144797
-1626.990972 -464.000000 -112.093812
-1628.692568 -464.000000 -111.042826
-1630.394164 -464.000000 -109.991840
-1632.095760 -464.000000 -108.940854
-1633.797356 -464.000000 -107.889869
-1635.498952 -464.000000 -106.838883
-1637.200548 -464.000000 -105.787897
-1638.902144 -464.000000 -104.736911
-1640.603740 -464.000000 -103.685926
-1642.305336 -464.000000 -102.634940
-1644.006932 -464.000000 -101.583954
-1645.708528 -464.000000 -100.532968
-1647.410124 -464.000000 -99.481982
-1649.111720 -464.000000 -98.430997
-1650.813316 -464.000000 -97.380011
-1652.514912 -464.000000 -96.329025
-1654.216508 -464.000000 -95.278039
-1655.918104 -464.000000 -94.227054
-1657.619700 -464.000000 -93.176068
-1659.321296 -464.000000 -92.125082
-1661.022892 -464.000000 -91.074096
-1662.724488 -464.000000 -90.023111
-1666.000000 -464.000000 -88.000000
-1666.000000 -464.000000 -86.000000
-1666.000000 -464.000000 -84.000000
-1666.000000 -464.000000 -82.000000
-1666.000000 -464.000000 -80.000000
-1666.000000 -464.000000 -78.000000
-1666.000000 -464.000000 -76.000000
-1666.000000 -464.000000 -74.000000
-1666.000000 -464.000000 -72.000000
-1666.000000 -464.000000 -70.000000
-1666.000000 -464.000000 -68.000000
-1666.000000 -464.000000 -66.000000
-1666.000000 -464.000000 -64.000000
-1666.000000 -464.000000 -62.000000
-1666.000000 -464.000000 -60.000000
-1666.000000 -464.000000 -58.000000
-1666.000000 -464.000000 -56.000000
-1666.000000 -464.000000 -54.000000
-1666.000000 -464.000000 -52.000000
-1666.000000 -464.000000 -50.000000
-1666.000000 -464.000000 -48.000000
-1666.000000 -464.000000 -46.000000
-1666.000000 -464.000000 -44.000000
-1666.000000 -464.000000 -42.000000
-1666.000000 -464.000000 -40.000000
-1666.000000 -464.000000 -38.000000
-1666.000000 -464.000000 -36.000000
-1666.000000 -464.000000 -32.000000
-1667.414214 -464.000000 -30.585786
-1668.828427 -464.000000 -29.171573
-1670.242641 -464.000000 -27.757359
-1671.656854 -464.000000 -26.343146
-1674.000000 -464.000000 -24.000000
-1674.280001 -465.372005 -22.571994
-1674.560002 -466.744011 -21.143989
-1674.840003 -468.116016 -19.715983
-1675.120004 -469.488022 -18.287977
-1675.400006 -470.860027 -16.859971
-1675.680007 -472.232033 -15.431966
-1675.960008 -473.604038 -14.003960
-1676.240009 -474.976044 -12.575954
-1676.520010 -476.348049 -11.147949
-1676.800011 -477.720055 -9.719943
-1677.080012 -479.092060 -8.291937
-1677.360013 -480.464066 -6.863931
-1677.640015 -481.836071 -5.435926
-1677.920016 -483.208077 -4.007920
-1678.200017 -484.580082 -2.579914
-1678.480018 -485.952088 -1.151909
-1678.760019 -487.324093 0.276097
-1679.040020 -488.696099 1.704103
-1679.320021 -490.068104 3.132109
-1679.600022 -491.440110 4.560114
-1679.880024 -492.812115 5.988120
-1680.160025 -494.184121 7.416126
-1680.440026 -495.556126 8.844131
-1680.720027 -496.928132 10.272137
-1681.000028 -498.300137 11.700143
-1681.280029 -499.672143 13.128149
-1681.560030 -501.044148 14.556154
-1681.840031 -502.416154 15.984160
-1682.120032 -503.788159 17.412166
-1682.400034 -505.160165 18.840171
-1682.680035 -506.532170 20.268177
-1682.960036 -507.904176 21.696183
-1683.240037 -509.276181 23.124188
-1683.520038 -510.648187 24.552194
-1683.800039 -512.020192 25.980200
-1684.080040 -513.392198 27.408206
-1684.360041 -514.764203 28.836211
-1684.640043 -516.136209 30.264217
-1684.920044 -517.508214 31.692223
-1685.200045 -518.880220 33.120228
-1685.480046 -520.252225 34.548234
-1685.760047 -521.624230 35.976240
-1686.040048 -522.996236 37.404246
-1686.320049 -524.368241 38.832251
-1686.600050 -525.740247 40.260257
-1686.880052 -527.112252 41.688263
-1687.160053 -528.484258 43.116268
-1687.440054 -529.856263 44.544274
-1687.720055 -531.228269 45.972280
-1688.000056 -532.600274 47.400286
-1688.280057 -533.972280 48.828291
-1688.560058 -535.344285 50.256297
-1688.840059 -536.716291 51.684303
-1689.120060 -538.088296 53.112308
-1689.400062 -539.460302 54.540314
-1689.680063 -540.832307 55.968320
-1689.960064 -542.204313 57.396326
-1690.240065 -543.576318 58.824331
-1690.520066 -544.948324 60.252337
-1690.800067 -546.320329 61.680343
-1691.080068 -547.692335 63.108348
-1691.360069 -549.064340 64.536354
-1691.640071 -550.436346 65.964360
-1691.920072 -551.808351 67.392366
-1692.200073 -553.180357 68.820371
-1692.480074 -554.552362 70.248377
-1692.760075 -555.924368 71.676383
-1693.040076 -557.296373 73.104388
-1693.320077 -558.668379 74.532394
-1693.600078 -560.040384 75.960400
-1693.880080 -561.412390 77.388406
-1694.160081 -562.784395 78.816411
-1694.440082 -564.156401 80.244417
-1694.720083 -565.528406 81.672423
-1695.000084 -566.900412 83.100428
-1695.280085 -568.272417 84.528434
-1695.560086 -569.644423 85.956440
-1695.840087 -571.016428 87.384446
-1696.120088 -572.388434 88.812451
-1696.400090 -573.760439 90.240457
-1696.680091 -575.132445 91.668463
-1696.960092 -576.504450 93.096468
-1697.240093 -577.876456 94.524474
-1697.520094 -579.248461 95.952480
-1697.800095 -580.620466 97.380486
-1698.080096 -581.992472 98.808491
-1698.360097 -583.364477 100.236497
-1698.640099 -584.736483 101.664503
-1698.920100 -586.108488 103.092508
-1699.200101 -587.480494 104.520514
-1699.480102 -588.852499 105.948520
-1699.760103 -590.224505 107.376526
-1700.040104 -591.596510 108.804531
-1700.320105 -592.968516 110.232537
-1700.600106 -594.340521 111.660543
-1700.880108 -595.712527 113.088548
-1701.160109 -597.084532 114.516554
-1701.440110 -598.456538 115.944560
-1701.720111 -599.828543 117.372565
-1702.000112 -601.200549 118.800571
-1702.280113 -602.572554 120.228577
-1702.560114 -603.944560 121.656583
-1702.840115 -605.316565 123.084588
-1703.120116 -606.688571 124.512594
-1703.400118 -608.060576 125.940600
-1703.680119 -609.432582 127.368605
-1703.960120 -610.804587 128.796611
-1704.240121 -612.176593 130.224617
-1704.520122 -613.548598 131.652623
-1704.800123 -614.920604 133.080628
-1705.080124 -616.292609 134.508634
-1705.360125 -617.664615 135.936640
-1705.640127 -619.036620 137.364645
-1705.920128 -620.408626 138.792651
-1706.200129 -621.780631 140.220657
-1706.480130 -623.152637 141.648663
-1706.760131 -624.524642 143.076668
-1707.040132 -625.896648 144.504674
-1707.320133 -627.268653 145.932680
-1707.600134 -628.640659 147.360685
-1707.880136 -630.012664 148.788691
-1708.160137 -631.384670 150.216697
-1708.440138 -632.756675 151.644703
-1708.720139 -634.128681 153.072708
-1709.000140 -635.500686 154.500714
-1709.280141 -636.872691 155.928720
-1709.560142 -638.244697 157.356725
-1709.840143 -639.616702 158.784731
-1710.120144 -640.988708 160.212737
-1710.400146 -642.360713 161.640743
-1710.680147 -643.732719 163.068748
-1710.960148 -645.104724 164.496754
-1711.240149 -646.476730 165.924760
-1711.520150 -647.848735 167.352765
-1711.800151 -649.220741 168.780771
-1712.080152 -650.592746 170.208777
-1712.360153 -651.964752 171.636783
-1712.640155 -653.336757 173.064788
-1712.920156 -654.708763 174.492794
-1713.200157 -656.080768 175.920800
-1713.480158 -657.452774 177.348805
-1714.000000 -660.000000 180.000000
-1714.000000 -662.000000 180.000000
-1714.000000 -664.000000 180.000000
-1714.000000 -666.000000 180.000000
-1714.000000 -668.000000 180.000000
-1714.000000 -670.000000 180.000000
-1714.000000 -672.000000 180.000000
-1714.000000 -674.000000 180.000000
-1714.000000 -676.000000 180.000000
-1714.000000 -678.000000 180.000000
-1714.000000 -680.000000 180.000000
-1714.000000 -682.000000 180.000000
-1714.000000 -684.000000 180.000000
-1714.000000 -688.000000 180.000000
-1714.000000 -689.996253 179.877624
-1714.000000 -691.992505 179.755249
-1714.000000 -693.988758 179.632873
-1714.000000 -695.985010 179.510497
-1714.000000 -697.981263 179.388122
-1714.000000 -699.977515 179.265746
-1714.000000 -701.973768 179.143371
-1714.000000 -703.970020 179.020995
-1714.000000 -705.966273 178.898619
-1714.000000 -707.962525 178.776244
-1714.000000 -709.958778 178.653868
-1714.000000 -711.955030 178.531492
-1714.000000 -713.951283 178.409117
-1714.000000 -715.947536 178.286741
-1714.000000 -717.943788 178.164365
-1714.000000 -719.940041 178.041990
-1714.000000 -721.936293 177.919614
-1714.000000 -723.932546 177.797239
-1714.000000 -725.928798 177.674863
-1714.000000 -727.925051 177.552487
-1714.000000 -729.921303 177.430112
-1714.000000 -731.917556 177.307736
-1714.000000 -733.913808 177.185360
-1714.000000 -735.910061 177.062985
-1714.000000 -737.906314 176.940609
-1714.000000 -739.902566 176.818233
-1714.000000 -741.898819 176.695858
-1714.000000 -743.895071 176.573482
-1714.000000 -745.891324 176.451107
-1714.000000 -747.887576 176.328731
-1714.000000 -749.883829 176.206355
-1714.000000 -751.880081 176.083980
-1714.000000 -753.876334 175.961604
-1714.000000 -755.872586 175.839228
-1714.000000 -757.868839 175.716853
-1714.000000 -759.865091 175.594477
-1714.000000 -761.861344 175.472102
-1714.000000 -763.857597 175.349726
-1714.000000 -765.853849 175.227350
-1714.000000 -767.850102 175.104975
-1714.000000 -769.846354 174.982599
-1714.000000 -771.842607 174.860223
-1714.000000 -773.838859 174.737848
-1714.000000 -775.835112 174.615472
-1714.000000 -777.831364 174.493096
-1714.000000 -779.827617 174.370721
-1714.000000 -781.823869 174.248345
-1714.000000 -783.820122 174.125970
-1714.000000 -785.816374 174.003594
-1714.000000 -787.812627 173.881218
-1714.000000 -789.808880 173.758843
-1714.000000 -791.805132 173.636467
-1714.000000 -793.801385 173.514091
-1714.000000 -795.797637 173.391716
-1714.000000 -797.793890 173.269340
-1714.000000 -799.790142 173.146964
-1714.000000 -801.786395 173.024589
-1714.000000 -803.782647 172.902213
-1714.000000 -805.778900 172.779838
-1714.000000 -807.775152 172.657462
-1714.000000 -809.771405 172.535086
-1714.000000 -811.767657 172.412711
-1714.000000 -813.763910 172.290335
-1714.000000 -815.760163 172.167959
-1714.000000 -817.756415 172.045584
-1714.000000 -819.752668 171.923208
-1714.000000 -821.748920 171.800832
-1714.000000 -823.745173 171.678457
-1714.000000 -825.741425 171.556081
-1714.000000 -827.737678 171.433706
-1714.000000 -829.733930 171.311330
-1714.000000 -831.730183 171.188954
-1714.000000 -833.726435 171.066579
-1714.000000 -835.722688 170.944203
-1714.000000 -837.718941 170.821827
-1714.000000 -839.715193 170.699452
-1714.000000 -841.711446 170.577076
-1714.000000 -843.707698 170.454700
-1714.000000 -845.703951 170.332325
-1714.000000 -847.700203 170.209949
-1714.000000 -849.696456 170.087574
-1714.000000 -851.692708 169.965198
-1714.000000 -853.688961 169.842822
-1714.000000 -855.685213 169.720447
-1714.000000 -857.681466 169.598071
-1714.000000 -859.677718 169.475695
-1714.000000 -861.673971 169.353320
-1714.000000 -863.670224 169.230944
-1714.000000 -865.666476 169.108569
-1714.000000 -867.662729 168.986193
-1714.000000 -869.658981 168.863817
-1714.000000 -871.655234 168.741442
-1714.000000 -873.651486 168.619066
-1714.000000 -875.647739 168.496690
-1714.000000 -877.643991 168.374315
-1714.000000 -879.640244 168.251939
-1714.000000 -881.636496 168.129563
-1714.000000 -883.632749 168.007188
-1714.000000 -885.629001 167.884812
-1714.000000 -887.625254 167.762437
-1714.000000 -889.621507 167.640061
-1714.000000 -891.617759 167.517685
-1714.000000 -893.614012 167.395310
-1714.000000 -895.610264 167.272934
-1714.000000 -897.606517 167.150558
-1714.000000 -899.602769 167.028183
-1714.000000 -901.599022 166.905807
-1714.000000 -903.595274 166.783431
-1714.000000 -905.591527 166.661056
-1714.000000 -907.587779 166.538680
-1714.000000 -909.584032 166.416305
-1714.000000 -911.580284 166.293929
-1714.000000 -913.576537 166.171553
-1714.000000 -915.572790 166.049178
-1714.000000 -917.569042 165.926802
-1714.000000 -919.565295 165.804426
-1714.000000 -921.561547 165.682051
-1714.000000 -923.557800 165.559675
-1714.000000 -925.554052 165.437299
-1714.000000 -927.550305 165.314924
-1714.000000 -929.546557 165.192548
-1714.000000 -931.542810 165.070173
-1714.000000 -933.539062 164.947797
-1714.000000 -935.535315 164.825421
-1714.000000 -937.531568 164.703046
-1714.000000 -939.527820 164.580670
-1714.000000 -941.524073 164.458294
-1714.000000 -943.520325 164.335919
-1714.000000 -945.516578 164.213543
-1714.000000 -947.512830 164.091167
-1714.000000 -949.509083 163.968792
-1714.000000 -951.505335 163.846416
-1714.000000 -953.501588 163.724041
-1714.000000 -955.497840 163.601665
-1714.000000 -957.494093 163.479289
-1714.000000 -959.490345 163.356914
-1714.000000 -961.486598 163.234538
-1714.000000 -963.482851 163.112162
-1714.000000 -965.479103 162.989787
-1714.000000 -967.475356 162.867411
-1714.000000 -969.471608 162.745036
-1714.000000 -971.467861 162.622660
-1714.000000 -973.464113 162.500284
-1714.000000 -975.460366 162.377909
-1714.000000 -977.456618 162.255533
-1714.000000 -979.452871 162.133157
-1714.000000 -981.449123 162.010782
-1714.000000 -983.445376 161.888406
-1714.000000 -985.441628 161.766030
-1714.000000 -987.437881 161.643655
-1714.000000 -989.434134 161.521279
-1714.000000 -991.430386 161.398904
-1714.000000 -993.426639 161.276528
-1714.000000 -995.422891 161.154152
-1714.000000 -997.419144 161.031777
-1714.000000 -999.415396 160.909401
-1714.000000 -1001.411649 160.787025
-1714.000000 -1003.407901 160.664650
-1714.000000 -1005.404154 160.542274
-1714.000000 -1007.400406 160.419898
-1714.000000 -1009.396659 160.297523
-1714.000000 -1011.392912 160.175147
-1714.000000 -1013.389164 160.052772
-1714.000000 -1015.385417 159.930396
-1714.000000 -1017.381669 159.808020
-1714.000000 -1019.377922 159.685645
-1714.000000 -1021.374174 159.563269
-1714.000000 -1023.370427 159.440893
-1714.000000 -1025.366679 159.318518
-1714.000000 -1027.362932 159.196142
-1714.000000 -1029.359184 159.073766
-1714.000000 -1031.355437 158.951391
-1714.000000 -1033.351689 158.829015
-1714.000000 -1035.347942 158.706640
-1714.000000 -1037.344195 158.584264
-1714.000000 -1039.340447 158.461888
-1714.000000 -1041.336700 158.339513
-1714.000000 -1043.332952 158.217137
-1714.000000 -1045.329205 158.094761
-1714.000000 -1047.325457 157.972386
-1714.000000 -1049.321710 157.850010
-1714.000000 -1051.317962 157.727634
-1714.000000 -1053.314215 157.605259
-1714.000000 -1055.310467 157.482883
-1714.000000 -1057.306720 157.360508
-1714.000000 -1059.302972 157.238132
-1714.000000 -1061.299225 157.115756
-1714.000000 -1063.295478 156.993381
-1714.000000 -1065.291730 156.871005
-1714.000000 -1067.287983 156.748629
-1714.000000 -1069.284235 156.626254
-1714.000000 -1071.280488 156.503878
-1714.000000 -1073.276740 156.381503
-1714.000000 -1075.272993 156.259127
-1714.000000 -1077.269245 156.136751
-1714.000000 -1079.265498 156.014376
-1714.000000 -1081.261750 155.892000
-1714.000000 -1083.258003 155.769624
-1714.000000 -1085.254255 155.647249
-1714.000000 -1087.250508 155.524873
-1714.000000 -1089.246761 155.402497
-1714.000000 -1091.243013 155.280122
-1714.000000 -1093.239266 155.157746
-1714.000000 -1095.235518 155.035371
-1714.000000 -1097.231771 154.912995
-1714.000000 -1099.228023 154.790619
-1714.000000 -1101.224276 154.668244
-1714.000000 -1103.220528 154.545868
-1714.000000 -1105.216781 154.423492
-1714.000000 -1107.213033 154.301117
-1714.000000 -1109.209286 154.178741
-1714.000000 -1111.205539 154.056365
-1714.000000 -1113.201791 153.933990
-1714.000000 -1115.198044 153.811614
-1714.000000 -1117.194296 153.689239
-1714.000000 -1119.190549 153.566863
-1714.000000 -1121.186801 153.444487
-1714.000000 -1123.183054 153.322112
-1714.000000 -1125.179306 153.199736
-1714.000000 -1127.175559 153.077360
-1714.000000 -1129.171811 152.954985
-1714.000000 -1131.168064 152.832609
-1714.000000 -1133.164316 152.710233
-1714.000000 -1135.160569 152.587858
-1714.000000 -1137.156822 152.465482
-1714.000000 -1139.153074 152.343107
-1714.000000 -1141.149327 152.220731
-1714.000000 -1143.145579 152.098355
-1714.000000 -1145.141832 151.975980
-1714.000000 -1147.138084 151.853604
-1714.000000 -1149.134337 151.731228
-1714.000000 -1151.130589 151.608853
-1714.000000 -1153.126842 151.486477
-1714.000000 -1155.123094 151.364101
-1714.000000 -1157.119347 151.241726
-1714.000000 -1159.115599 151.119350
-1714.000000 -1161.111852 150.996975
-1714.000000 -1163.108105 150.874599
-1714.000000 -1165.104357 150.752223
-1714.000000 -1167.100610 150.629848
-1714.000000 -1169.096862 150.507472
-1714.000000 -1171.093115 150.385096
-1714.000000 -1173.089367 150.262721
-1714.000000 -1175.085620 150.140345
-1714.000000 -1177.081872 150.017970
-1714.000000 -1179.078125 149.895594
-1714.000000 -1181.074377 149.773218
-1714.000000 -1183.070630 149.650843
-1714.000000 -1185.066882 149.528467
-1714.000000 -1187.063135 149.406091
-1714.000000 -1189.059388 149.283716
-1714.000000 -1191.055640 149.161340
-1714.000000 -1193.051893 149.038964
-1714.000000 -1195.048145 148.916589
-1714.000000 -1197.044398 148.794213
-1714.000000 -1199.040650 148.671838
-1714.000000 -1201.036903 148.549462
-1714.000000 -1203.033155 148.427086
-1714.000000 -1205.029408 148.304711
-1714.000000 -1207.025660 148.182335
-1714.000000 -1210.000000 148.000000
-1714.000000 -1211.981242 148.273275
-1714.000000 -1213.962485 148.546550
-1714.000000 -1215.943727 148.819824
-1714.000000 -1217.924969 149.093099
-1714.000000 -1219.906211 149.366374
-1714.000000 -1221.887454 149.639649
-1714.000000 -1223.868696 149.912924
-1714.000000 -1225.849938 150.186198
-1714.000000 -1227.831180 150.459473
-1714.000000 -1229.812423 150.732748
-1714.000000 -1231.793665 151.006023
-1714.000000 -1233.774907 151.279298
-1714.000000 -1235.756149 151.552572
-1714.000000 -1237.737392 151.825847
-1714.000000 -1239.718634 152.099122
-1714.000000 -1241.699876 152.372397
-1714.000000 -1243.681118 152.645672
-1714.000000 -1245.662361 152.918946
-1714.000000 -1247.643603 153.192221
-1714.000000 -1249.624845 153.465496
-1714.000000 -1251.606087 153.738771
-1714.000000 -1253.587330 154.012045
-1714.000000 -1255.568572 154.285320
-1714.000000 -1257.549814 154.558595
-1714.000000 -1259.531056 154.831870
-1714.000000 -1261.512299 155.105145
-1714.000000 -1263.493541 155.378419
-1714.000000 -1265.474783 155.651694
-1714.000000 -1267.456025 155.924969
-1714.000000 -1269.437268 156.198244
-1714.000000 -1271.418510 156.471519
-1714.000000 -1273.399752 156.744793
-1714.000000 -1275.380995 157.018068
-1714.000000 -1277.362237 157.291343
-1714.000000 -1279.343479 157.564618
-1714.000000 -1281.324721 157.837893
-1714.000000 -1283.305964 158.111167
-1714.000000 -1285.287206 158.384442
-1714.000000 -1287.268448 158.657717
-1714.000000 -1289.249690 158.930992
-1714.000000 -1291.230933 159.204267
-1714.000000 -1293.212175 159.477541
-1714.000000 -1295.193417 159.750816
-1714.000000 -1297.174659 160.024091
-1714.000000 -1299.155902 160.297366
-1714.000000 -1301.137144 160.570641
-1714.000000 -1303.118386 160.843915
-1714.000000 -1305.099628 161.117190
-1714.000000 -1307.080871 161.390465
-1714.000000 -1309.062113 161.663740
-1714.000000 -1311.043355 161.937015
-1714.000000 -1313.024597 162.210289
-1714.000000 -1315.005840 162.483564
-1714.000000 -1316.987082 162.756839
-1714.000000 -1318.968324 163.030114
-1714.000000 -1320.949566 163.303388
-1714.000000 -1322.930809 163.576663
-1714.000000 -1324.912051 163.849938
-1714.000000 -1326.893293 164.123213
-1714.000000 -1328.874536 164.396488
-1714.000000 -1330.855778 164.669762
-1714.000000 -1332.837020 164.943037
-1714.000000 -1334.818262 165.216312
-1714.000000 -1336.799505 165.489587
-1714.000000 -1338.780747 165.762862
-1714.000000 -1340.761989 166.036136
-1714.000000 -1342.743231 166.309411
-1714.000000 -1344.724474 166.582686
-1714.000000 -1346.705716 166.855961
-1714.000000 -1348.686958 167.129236
-1714.000000 -1350.668200 167.402510
-1714.000000 -1352.649443 167.675785
-1714.000000 -1354.630685 167.949060
-1714.000000 -1356.611927 168.222335
-1714.000000 -1358.593169 168.495610
-1714.000000 -1360.574412 168.768884
-1714.000000 -1362.555654 169.042159
-1714.000000 -1364.536896 169.315434
-1714.000000 -1366.518138 169.588709
-1714.000000 -1368.499381 169.861984
-1714.000000 -1370.480623 170.135258
-1714.000000 -1372.461865 170.408533
-1714.000000 -1374.443107 170.681808
-1714.000000 -1376.424350 170.955083
-1714.000000 -1378.405592 171.228358
-1714.000000 -1380.386834 171.501632
-1714.000000 -1382.368076 171.774907
-1714.000000 -1384.349319 172.048182
-1714.000000 -1386.330561 172.321457
-1714.000000 -1388.311803 172.594731
-1714.000000 -1390.293046 172.868006
-1714.000000 -1392.274288 173.141281
-1714.000000 -1394.255530 173.414556
-1714.000000 -1396.236772 173.687831
-1714.000000 -1398.218015 173.961105
-1714.000000 -1400.199257 174.234380
-1714.000000 -1402.180499 174.507655
-1714.000000 -1404.161741 174.780930
-1714.000000 -1406.142984 175.054205
-1714.000000 -1408.124226 175.327479
-1714.000000 -1410.105468 175.600754
-1714.000000 -1412.086710 175.874029
-1714.000000 -1414.067953 176.147304
-1714.000000 -1416.049195 176.420579
-1714.000000 -1418.030437 176.693853
-1714.000000 -1420.011679 176.967128
-1714.000000 -1421.992922 177.240403
-1714.000000 -1423.974164 177.513678
-1714.000000 -1425.955406 177.786953
-1714.000000 -1427.936648 178.060227
-1714.000000 -1429.917891 178.333502
-1714.000000 -1431.899133 178.606777
-1714.000000 -1433.880375 178.880052
-1714.000000 -1435.861617 179.153327
-1714.000000 -1437.842860 179.426601
-1714.000000 -1439.824102 179.699876
-1714.000000 -1441.805344 179.973151
-1714.000000 -1443.786587 180.246426
-1714.000000 -1445.767829 180.519701
-1714.000000 -1447.749071 180.792975
-1714.000000 -1449.730313 181.066250
-1714.000000 -1451.711556 181.339525
-1714.000000 -1453.692798 181.612800
-1714.000000 -1455.674040 181.886074
-1714.000000 -1457.655282 182.159349
-1714.000000 -1459.636525 182.432624
-1714.000000 -1461.617767 182.705899
-1714.000000 -1463.599009 182.979174
-1714.000000 -1465.580251 183.252448
-1714.000000 -1467.561494 183.525723
-1714.000000 -1469.542736 183.798998
-1714.000000 -1471.523978 184.072273
-1714.000000 -1473.505220 184.345548
-1714.000000 -1475.486463 184.618822
-1714.000000 -1477.467705 184.892097
-1714.000000 -1479.448947 185.165372
-1714.000000 -1481.430189 185.438647
-1714.000000 -1483.411432 185.711922
-1714.000000 -1485.392674 185.985196
-1714.000000 -1487.373916 186.258471
-1714.000000 -1489.355158 186.531746
-1714.000000 -1491.336401 186.805021
-1714.000000 -1493.317643 187.078296
-1714.000000 -1495.298885 187.351570
-1714.000000 -1497.280127 187.624845
-1714.000000 -1499.261370 187.898120
-1714.000000 -1501.242612 188.171395
-1714.000000 -1503.223854 188.444670
-1714.000000 -1505.205097 188.717944
-1714.000000 -1507.186339 188.991219
-1714.000000 -1509.167581 189.264494
-1714.000000 -1511.148823 189.537769
-1714.000000 -1513.130066 189.811044
-1714.000000 -1515.111308 190.084318
-1714.000000 -1517.092550 190.357593
-1714.000000 -1519.073792 190.630868
-1714.000000 -1521.055035 190.904143
-1714.000000 -1523.036277 191.177417
-1714.000000 -1525.017519 191.450692
-1714.000000 -1526.998761 191.723967
-1714.000000 -1528.980004 191.997242
-1714.000000 -1530.961246 192.270517
-1714.000000 -1532.942488 192.543791
-1714.000000 -1534.923730 192.817066
-1714.000000 -1536.904973 193.090341
-1714.000000 -1538.886215 193.363616
-1714.000000 -1540.867457 193.636891
-1714.000000 -1542.848699 193.910165
-1714.000000 -1544.829942 194.183440
-1714.000000 -1546.811184 194.456715
-1714.000000 -1548.792426 194.729990
-1714.000000 -1550.773668 195.003265
-1714.000000 -1552.754911 195.276539
-1714.000000 -1554.736153 195.549814
-1714.000000 -1556.717395 195.823089
-1714.000000 -1558.698637 196.096364
-1714.000000 -1560.679880 196.369639
-1714.000000 -1562.661122 196.642913
-1714.000000 -1564.642364 196.916188
-1714.000000 -1566.623607 197.189463
-1714.000000 -1568.604849 197.462738
-1714.000000 -1570.586091 197.736013
-1714.000000 -1572.567333 198.009287
-1714.000000 -1574.548576 198.282562
-1714.000000 -1576.529818 198.555837
-1714.000000 -1578.511060 198.829112
-1714.000000 -1580.492302 199.102387
-1714.000000 -1582.473545 199.375661
-1714.000000 -1584.454787 199.648936
-1714.000000 -1586.436029 199.922211
-1714.000000 -1588.417271 200.195486
-1714.000000 -1590.398514 200.468761
-1714.000000 -1592.379756 200.742035
-1714.000000 -1594.360998 201.015310
-1714.000000 -1596.342240 201.288585
-1714.000000 -1598.323483 201.561860
-1714.000000 -1600.304725 201.835134
-1714.000000 -1602.285967 202.108409
-1714.000000 -1604.267209 202.381684
-1714.000000 -1606.248452 202.654959
-1714.000000 -1608.229694 202.928234
-1714.000000 -1610.210936 203.201508
-1714.000000 -1612.192178 203.474783
-1714.000000 -1616.000000 204.000000
-1714.000000 -1617.843471 203.224361
-1714.000000 -1619.686941 202.448722
-1714.000000 -1621.530412 201.673083
-1714.000000 -1623.373883 200.897444
-1714.000000 -1625.217353 200.121805
-1714.000000 -1627.060824 199.346166
-1714.000000 -1628.904295 198.570527
-1714.000000 -1630.747766 197.794888
-1714.000000 -1632.591236 197.019249
-1714.000000 -1634.434707 196.243610
-1714.000000 -1636.278178 195.467971
-1714.000000 -1638.121648 194.692332
-1714.000000 -1639.965119 193.916693
-1714.000000 -1641.808590 193.141054
-1714.000000 -1643.652060 192.365416
-1714.000000 -1645.495531 191.589777
-1714.000000 -1647.339002 190.814138
-1714.000000 -1649.182472 190.038499
-1714.000000 -1651.025943 189.262860
-1714.000000 -1652.869414 188.487221
-1714.000000 -1654.712885 187.711582
-1714.000000 -1656.556355 186.935943
-1714.000000 -1658.399826 186.160304
-1714.000000 -1660.243297 185.384665
-1714.000000 -1662.086767 184.609026
-1714.000000 -1663.930238 183.833387
-1714.000000 -1665.773709 183.057748
-1714.000000 -1667.617179 182.282109
-1714.000000 -1669.460650 181.506470
-1714.000000 -1671.304121 180.730831
-1714.000000 -1673.147591 179.955192
-1714.000000 -1674.991062 179.179553
-1714.000000 -1676.834533 178.403914
-1714.000000 -1678.678004 177.628275
-1714.000000 -1680.521474 176.852636
-1714.000000 -1682.364945 176.076997
-1714.000000 -1684.208416 175.301358
-1714.000000 -1686.051886 174.525719
-1714.000000 -1687.895357 173.750080
-1714.000000 -1689.738828 172.974441
-1714.000000 -1691.582298 172.198802
-1714.000000 -1693.425769 171.423163
-1714.000000 -1695.269240 170.647524
-1714.000000 -1697.112710 169.871886
-1714.000000 -1698.956181 169.096247
-1714.000000 -1700.799652 168.320608
-1714.000000 -1702.643123 167.544969
-1714.000000 -1704.486593 166.769330
-1714.000000 -1706.330064 165.993691
-1714.000000 -1708.173535 165.218052
-1714.000000 -1710.017005 164.442413
-1714.000000 -1711.860476 163.666774
-1714.000000 -1713.703947 162.891135
-1714.000000 -1715.547417 162.115496
-1714.000000 -1717.390888 161.339857
-1714.000000 -1719.234359 160.564218
-1714.000000 -1721.077829 159.788579
-1714.000000 -1722.921300 159.012940
-1714.000000 -1724.764771 158.237301
-1714.000000 -1726.608242 157.461662
-1714.000000 -1728.451712 156.686023
-1714.000000 -1730.295183 155.910384
-1714.000000 -1732.138654 155.134745
-1714.000000 -1733.982124 154.359106
-1714.000000 -1735.825595 153.583467
-1714.000000 -1737.669066 152.807828
-1714.000000 -1739.512536 152.032189
-1714.000000 -1741.356007 151.256550
-1714.000000 -1743.199478 150.480911
-1714.000000 -1745.042948 149.705272
-1714.000000 -1746.886419 148.929633
-1714.000000 -1748.729890 148.153994
-1714.000000 -1750.573361 147.378355
-1714.000000 -1752.416831 146.602717
-1714.000000 -1754.260302 145.827078
-1714.000000 -1756.103773 145.051439
-1714.000000 -1757.947243 144.275800
-1714.000000 -1759.790714 143.500161
-1714.000000 -1761.634185 142.724522
-1714.000000 -1763.477655 141.948883
-1714.000000 -1765.321126 141.173244
-1714.000000 -1767.164597 140.397605
-1714.000000 -1769.008067 139.621966
-1714.000000 -1770.851538 138.846327
-1714.000000 -1772.695009 138.070688
-1714.000000 -1774.538480 137.295049
-1714.000000 -1776.381950 136.519410
-1714.000000 -1778.225421 135.743771
-1714.000000 -1780.068892 134.968132
-1714.000000 -1781.912362 134.192493
-1714.000000 -1783.755833 133.416854
-1714.000000 -1785.599304 132.641215
-1714.000000 -1787.442774 131.865576
-1714.000000 -1789.286245 131.089937
-1714.000000 -1791.129716 130.314298
-1714.000000 -1792.973186 129.538659
-1714.000000 -1794.816657 128.763020
-1714.000000 -1796.660128 127.987381
-1714.000000 -1798.503599 127.211742
-1714.000000 -1800.347069 126.436103
-1714.000000 -1802.190540 125.660464
-1714.000000 -1804.034011 124.884825
-1714.000000 -1805.877481 124.109187
-1714.000000 -1807.720952 123.333548
-1714.000000 -1809.564423 122.557909
-1714.000000 -1811.407893 121.782270
-1714.000000 -1813.251364 121.006631
-1714.000000 -1815.094835 120.230992
-1714.000000 -1816.938306 119.455353
-1714.000000 -1818.781776 118.679714
-1714.000000 -1820.625247 117.904075
-1714.000000 -1822.468718 117.128436
-1714.000000 -1824.312188 116.352797
-1714.000000 -1826.155659 115.577158
-1714.000000 -1827.999130 114.801519
-1714.000000 -1829.842600 114.025880
-1714.000000 -1831.686071 113.250241
-1714.000000 -1833.529542 112.474602
-1714.000000 -1835.373012 111.698963
-1714.000000 -1837.216483 110.923324
-1714.000000 -1839.059954 110.147685
-1714.000000 -1840.903425 109.372046
-1714.000000 -1842.746895 108.596407
-1714.000000 -1844.590366 107.820768
-1714.000000 -1846.433837 107.045129
-1714.000000 -1848.277307 106.269490
-1714.000000 -1850.120778 105.493851
-1714.000000 -1851.964249 104.718212
-1714.000000 -1853.807719 103.942573
-1714.000000 -1855.651190 103.166934
-1714.000000 -1857.494661 102.391295
-1714.000000 -1859.338131 101.615657
-1714.000000 -1861.181602 100.840018
-1714.000000 -1863.025073 100.064379
-1714.000000 -1864.868544 99.288740
-1714.000000 -1866.712014 98.513101
-1714.000000 -1868.555485 97.737462
-1714.000000 -1870.398956 96.961823
-1714.000000 -1872.242426 96.186184
-1714.000000 -1874.085897 95.410545
-1714.000000 -1875.929368 94.634906
-1714.000000 -1877.772838 93.859267
-1714.000000 -1879.616309 93.083628
-1714.000000 -1881.459780 92.307989
-1714.000000 -1883.303250 91.532350
-1714.000000 -1885.146721 90.756711
-1714.000000 -1886.990192 89.981072
-1714.000000 -1888.833663 89.205433
-1714.000000 -1890.677133 88.429794
-1714.000000 -1892.520604 87.654155
-1714.000000 -1894.364075 86.878516
-1714.000000 -1896.207545 86.102877
-1714.000000 -1898.051016 85.327238
-1714.000000 -1899.894487 84.551599
-1714.000000 -1901.737957 83.775960
-1714.000000 -1903.581428 83.000321
-1714.000000 -1905.424899 82.224682
-1714.000000 -1907.268369 81.449043
-1714.000000 -1909.111840 80.673404
-1714.000000 -1910.955311 79.897765
-1714.000000 -1912.798782 79.122127
-1714.000000 -1914.642252 78.346488
-1714.000000 -1916.485723 77.570849
-1714.000000 -1918.329194 76.795210
-1714.000000 -1920.172664 76.019571
-1714.000000 -1922.016135 75.243932
-1714.000000 -1923.859606 74.468293
-1714.000000 -1925.703076 73.692654
-1714.000000 -1927.546547 72.917015
-1714.000000 -1929.390018 72.141376
-1714.000000 -1931.233488 71.365737
-1714.000000 -1933.076959 70.590098
-1714.000000 -1934.920430 69.814459
-1714.000000 -1936.763901 69.038820
-1714.000000 -1938.607371 68.263181
-1714.000000 -1940.450842 67.487542
-1714.000000 -1942.294313 66.711903
-1714.000000 -1944.137783 65.936264
-1714.000000 -1945.981254 65.160625
-1714.000000 -1947.824725 64.384986
-1714.000000 -1949.668195 63.609347
-1714.000000 -1951.511666 62.833708
-1714.000000 -1953.355137 62.058069
-1714.000000 -1955.198607 61.282430
-1714.000000 -1957.042078 60.506791
-1714.000000 -1958.885549 59.731152
-1714.000000 -1960.729020 58.955513
-1714.000000 -1962.572490 58.179874
-1714.000000 -1964.415961 57.404235
-1714.000000 -1966.259432 56.628596
-1714.000000 -1968.102902 55.852958
-1714.000000 -1969.946373 55.077319
-1714.000000 -1971.789844 54.301680
-1714.000000 -1973.633314 53.526041
-1714.000000 -1975.476785 52.750402
-1714.000000 -1977.320256 51.974763
-1714.000000 -1979.163726 51.199124
-1714.000000 -1981.007197 50.423485
-1714.000000 -1982.850668 49.647846
-1714.000000 -1984.694139 48.872207
-1714.000000 -1986.537609 48.096568
-1714.000000 -1988.381080 47.320929
-1714.000000 -1990.224551 46.545290
-1714.000000 -1992.068021 45.769651
-1714.000000 -1993.911492 44.994012
-1714.000000 -1995.754963 44.218373
-1714.000000 -1997.598433 43.442734
-1714.000000 -1999.441904 42.667095
-1714.000000 -2001.285375 41.891456
-1714.000000 -2003.128845 41.115817
-1714.000000 -2004.972316 40.340178
-1714.000000 -2006.815787 39.564539
-1714.000000 -2008.659258 38.788900
-1714.000000 -2010.502728 38.013261
-1714.000000 -2012.346199 37.237622
-1714.000000 -2014.189670 36.461983
-1714.000000 -2016.033140 35.686344
-1714.000000 -2017.876611 34.910705
-1714.000000 -2019.720082 34.135066
-1714.000000 -2021.563552 33.359428
-1714.000000 -2023.407023 32.583789
-1714.000000 -2025.250494 31.808150
-1714.000000 -2027.093964 31.032511
-1714.000000 -2028.937435 30.256872
-1714.000000 -2030.780906 29.481233
-1714.000000 -2032.624377 28.705594
-1714.000000 -2034.467847 27.929955
-1714.000000 -2036.311318 27.154316
-1714.000000 -2038.154789 26.378677
-1714.000000 -2039.998259 25.603038
-1714.000000 -2041.841730 24.827399
-1714.000000 -2043.685201 24.051760
-1714.000000 -2045.528671 23.276121
-1714.000000 -2047.372142 22.500482
-1714.000000 -2049.215613 21.724843
-1714.000000 -2051.059083 20.949204
-1714.000000 -2052.902554 20.173565
-1714.000000 -2054.746025 19.397926
-1714.000000 -2056.589496 18.622287
-1714.000000 -2058.432966 17.846648
-1714.000000 -2060.276437 17.071009
-1714.000000 -2062.119908 16.295370
-1714.000000 -2063.963378 15.519731
-1714.000000 -2065.806849 14.744092
-1714.000000 -2067.650320 13.968453
-1714.000000 -2069.493790 13.192814
-1714.000000 -2071.337261 12.417175
-1714.000000 -2073.180732 11.641536
-1714.000000 -2075.024202 10.865898
-1714.000000 -2076.867673 10.090259
-1714.000000 -2078.711144 9.314620
-1714.000000 -2080.554615 8.538981
-1714.000000 -2082.398085 7.763342
-1714.000000 -2084.241556 6.987703
-1714.000000 -2086.085027 6.212064
-1714.000000 -2087.928497 5.436425
-1714.000000 -2089.771968 4.660786
-1714.000000 -2091.615439 3.885147
-1714.000000 -2093.458909 3.109508
-1714.000000 -2095.302380 2.333869
-1714.000000 -2097.145851 1.558230
-1714.000000 -2098.989321 0.782591
-1714.000000 -2100.832792 0.006952
-1714.000000 -2102.676263 -0.768687
-1714.000000 -2104.519734 -1.544326
-1714.000000 -2106.363204 -2.319965
-1714.000000 -2108.206675 -3.095604
-1714.000000 -2110.050146 -3.871243
-1714.000000 -2111.893616 -4.646882
-1714.000000 -2113.737087 -5.422521
-1714.000000 -2115.580558 -6.198160
-1714.000000 -2117.424028 -6.973799
-1714.000000 -2119.267499 -7.749438
-1714.000000 -2121.110970 -8.525077
-1714.000000 -2122.954440 -9.300716
-1714.000000 -2124.797911 -10.076355
-1714.000000 -2126.641382 -10.851994
-1714.000000 -2128.484853 -11.627632
-1714.000000 -2130.328323 -12.403271
-1714.000000 -2132.171794 -13.178910
-1714.000000 -2134.015265 -13.954549
-1714.000000 -2135.858735 -14.730188
-1714.000000 -2137.702206 -15.505827
-1714.000000 -2139.545677 -16.281466
-1714.000000 -2141.389147 -17.057105
-1714.000000 -2143.232618 -17.832744
-1714.000000 -2145.076089 -18.608383
-1714.000000 -2146.919559 -19.384022
-1714.000000 -2148.763030 -20.159661
-1714.000000 -2150.606501 -20.935300
-1714.000000 -2152.449972 -21.710939
-1714.000000 -2154.293442 -22.486578
-1714.000000 -2156.136913 -23.262217
-1714.000000 -2157.980384 -24.037856
-1714.000000 -2159.823854 -24.813495
-1714.000000 -2161.667325 -25.589134
-1714.000000 -2163.510796 -26.364773
-1714.000000 -2165.354266 -27.140412
-1714.000000 -2167.197737 -27.916051
-1714.000000 -2169.041208 -28.691690
-1714.000000 -2170.884678 -29.467329
-1714.000000 -2172.728149 -30.242968
-1714.000000 -2174.571620 -31.018607
-1714.000000 -2176.415091 -31.794246
-1714.000000 -2178.258561 -32.569885
-1714.000000 -2180.102032 -33.345524
-1714.000000 -2181.945503 -34.121162
-1714.000000 -2183.788973 -34.896801
-1714.000000 -2185.632444 -35.672440
-1714.000000 -2187.475915 -36.448079
-1714.000000 -2189.319385 -37.223718
-1714.000000 -2191.162856 -37.999357
-1714.000000 -2193.006327 -38.774996
-1714.000000 -2194.849797 -39.550635
-1714.000000 -2196.693268 -40.326274
-1714.000000 -2198.536739 -41.101913
-1714.000000 -2200.380210 -41.877552
-1714.000000 -2202.223680 -42.653191
-1714.000000 -2204.067151 -43.428830
-1714.000000 -2205.910622 -44.204469
-1714.000000 -2207.754092 -44.980108
-1714.000000 -2209.597563 -45.755747
-1714.000000 -2211.441034 -46.531386
-1714.000000 -2213.284504 -47.307025
-1714.000000 -2215.127975 -48.082664
-1714.000000 -2216.971446 -48.858303
-1714.000000 -2218.814917 -49.633942
-1714.000000 -2220.658387 -50.409581
-1714.000000 -2222.501858 -51.185220
-1714.000000 -2224.345329 -51.960859
-1714.000000 -2226.188799 -52.736498
-1714.000000 -2228.032270 -53.512137
-1714.000000 -2229.875741 -54.287776
-1714.000000 -2231.719211 -55.063415
-1714.000000 -2233.562682 -55.839054
-1714.000000 -2235.406153 -56.614693
-1714.000000 -2237.249623 -57.390331
-1714.000000 -2239.093094 -58.165970
-1714.000000 -2240.936565 -58.941609
-1714.000000 -2242.780036 -59.717248
-1714.000000 -2244.623506 -60.492887
-1714.000000 -2246.466977 -61.268526
-1714.000000 -2248.310448 -62.044165
-1714.000000 -2250.153918 -62.819804
-1714.000000 -2251.997389 -63.595443
-1714.000000 -2253.840860 -64.371082
-1714.000000 -2255.684330 -65.146721
-1714.000000 -2257.527801 -65.922360
-1714.000000 -2259.371272 -66.697999
-1714.000000 -2261.214742 -67.473638
-1714.000000 -2263.058213 -68.249277
-1714.000000 -2264.901684 -69.024916
-1714.000000 -2266.745155 -69.800555
-1714.000000 -2268.588625 -70.576194
-1714.000000 -2270.432096 -71.351833
-1714.000000 -2272.275567 -72.127472
-1714.000000 -2274.119037 -72.903111
-1714.000000 -2275.962508 -73.678750
-1714.000000 -2277.805979 -74.454389
-1714.000000 -2279.649449 -75.230028
-1714.000000 -2281.492920 -76.005667
-1714.000000 -2283.336391 -76.781306
-1714.000000 -2285.179861 -77.556945
-1714.000000 -2287.023332 -78.332584
-1714.000000 -2288.866803 -79.108223
-1714.000000 -2290.710274 -79.883861
-1714.000000 -2292.553744 -80.659500
-1714.000000 -2294.397215 -81.435139
-1714.000000 -2296.240686 -82.210778
-1714.000000 -2298.084156 -82.986417
-1714.000000 -2299.927627 -83.762056
-1714.000000 -2301.771098 -84.537695
-1714.000000 -2303.614568 -85.313334
-1714.000000 -2305.458039 -86.088973
-1714.000000 -2307.301510 -86.864612
